ply
format ascii 1.0
element vertex 1378
property float x
property float y
property float z
property uchar red
property uchar green
property uchar blue
end_header
0.4848 -2.4793 -9.9174 175 148 125
6.4000 7.5429 -22.8571 158 187 71
-7.9048 3.8333 -21.4286 167 152 98
-4.1751 -1.2189 -12.6095 175 143 104
-2.0243 -1.2894 -12.4783 88 59 28
-5.0202 -0.8661 -13.2110 105 78 44
-1.6471 -2.4967 -11.7647 131 101 67
-2.8518 0.2852 -13.5084 95 78 59
-3.7731 7.1881 -21.4925 168 155 126
-2.8095 6.2619 -21.4286 165 149 105
-5.2023 -0.5595 -13.6106 109 82 51
0.1296 -2.1053 -9.7166 136 207 93
1.5393 -2.0921 -9.7561 91 167 153
0.2313 2.4867 -17.3494 102 112 157
-2.6343 -1.2062 -12.4783 80 69 67
1.0667 -2.9279 -9.7959 69 111 101
-3.4796 0.1041 -13.3829 108 90 51
-9.6292 7.9027 -21.8845 183 174 130
0.9412 1.8627 -17.6471 205 187 193
-3.7861 -1.9358 -9.6257 128 130 84
5.8868 7.4717 -22.6415 156 187 82
4.3373 6.5783 -21.6867 127 189 69
-5.9880 8.9820 -21.5569 183 169 128
-4.0952 6.0238 -21.4286 154 142 94
6.4935 8.1818 -23.3766 135 184 139
-5.5403 8.0000 -21.4925 93 141 73
2.5000 3.9318 -20.4545 209 210 191
-8.8571 4.0238 -21.4286 181 153 108
1.7092 6.1484 -21.3650 101 147 85
2.9681 -0.7304 -10.4348 145 35 58
-7.2570 0.2246 -15.5508 158 131 76
0.7341 -0.9393 -9.7166 51 108 42
1.4092 -2.6341 -9.7561 153 198 135
-0.4954 7.2570 -22.2910 212 202 197
-9.4762 2.3571 -21.4286 86 136 35
-3.3333 4.8333 -21.4286 154 140 91
-7.3514 7.9520 -21.6216 171 159 121
-3.5455 0.5606 -13.6364 93 66 41
-10.2381 2.2619 -21.4286 177 152 113
-4.2003 -3.9513 -9.7429 18 11 3
2.0455 4.2955 -20.4545 53 94 28
-8.7881 5.7552 -21.4925 154 177 104
-2.2639 0.7189 -13.7667 134 101 67
-6.6667 3.2619 -21.4286 165 137 97
-2.9524 6.1190 -21.4286 164 150 102
-2.3770 -2.5942 -11.5016 113 92 69
1.3677 -2.2469 -9.7693 152 193 137
-2.4242 1.8263 -14.5455 147 126 104
-5.9524 4.5952 -21.4286 167 135 108
-2.1515 0.2879 -13.6364 72 49 27
-6.9020 -0.0174 -15.6863 165 149 99
3.0769 5.2781 -21.3018 120 108 180
-4.8723 1.0216 -14.1454 114 87 54
-4.1702 -2.1170 -9.5745 198 204 183
-3.4672 1.6382 -14.3141 76 61 42
-2.9051 -3.0461 -9.7561 200 198 194
-2.9714 -0.6429 -12.8571 110 99 74
2.1818 4.1591 -20.4545 141 154 187
1.5443 -1.3291 -11.3924 163 59 75
-1.5924 -3.2227 -11.3744 72 50 30
-1.7255 -2.5229 -11.7647 161 139 93
-4.9048 6.3095 -21.4286 188 175 130
0.6836 -3.1295 -9.6128 123 149 91
-5.1236 -0.6142 -13.4831 113 86 42
4.3061 3.5251 -18.9974 81 141 68
-5.9701 7.6657 -21.4925 162 156 89
2.7706 -1.3506 -10.3896 177 42 56
-0.1720 -0.4301 -15.4839 193 198 86
-9.1905 4.3571 -21.4286 184 167 130
-4.3871 -1.4086 -9.6774 116 65 82
2.5806 -0.9606 -12.9032 198 32 50
-0.9682 9.4013 -22.9299 126 162 65
-8.0958 6.9222 -21.5569 198 179 135
-3.7597 -3.0013 -9.6128 94 76 23
0.6538 -1.0495 -15.4839 117 99 76
2.5126 -0.5054 -12.9964 217 32 48
-3.6809 -3.9255 -9.5745 168 174 144
-0.1500 7.8250 -22.5000 126 155 77
-3.2114 -0.8099 -12.7886 107 86 64
-3.0000 -2.9375 -11.2500 79 55 32
-0.3846 1.9808 -17.3077 196 169 169
-4.0265 -3.4437 -9.5364 50 27 16
-2.4691 9.2099 -22.2222 158 145 109
-1.1707 -1.7979 -12.5436 149 107 56
-4.1809 -2.3987 -12.0603 113 112 61
6.3091 7.3438 -22.7129 88 128 92
1.2418 7.4269 -21.4925 125 169 66
-8.6667 5.7381 -21.4286 142 167 91
-1.9157 -1.9022 -12.1417 142 111 66
-2.8549 -3.7390 -9.5872 166 167 161
1.3257 3.7714 -20.5714 101 166 62
2.5844 -0.0726 -13.0672 231 39 59
-4.4857 -1.0429 -12.8571 165 131 96
-8.4510 2.8249 -21.3650 191 164 124
-2.0952 3.9286 -21.4286 109 89 40
-10.2577 7.8773 -22.0859 180 162 122
-5.6190 5.9762 -21.4286 186 164 127
-7.0043 -1.5966 -15.4506 59 51 69
-3.6890 -2.5416 -9.6515 133 136 91
2.0455 4.0682 -20.4545 61 83 20
4.1928 6.6265 -21.6867 115 170 62
4.4327 3.3984 -18.9974 70 142 74
0.7640 -2.8049 -9.8226 57 142 109
-7.9036 8.5542 -21.6867 148 133 90
-3.7067 4.1994 -21.1144 87 117 33
4.0000 9.1750 -22.5000 123 184 79
0.1487 -1.7993 -13.3829 176 148 117
-10.1128 2.3976 -21.3650 178 149 107
-0.4350 -1.3204 -13.9806 120 86 47
-1.3950 -1.4662 -12.8114 128 101 64
-1.4570 -2.1180 -12.1417 122 98 62
-1.3517 -1.9172 -12.4138 137 110 75
-4.2162 -1.3514 -9.7297 111 83 115
-1.5806 -1.6776 -12.4783 131 101 62
-5.0476 5.7381 -21.4286 95 125 38
0.8513 -2.3029 -9.8226 74 143 118
3.5325 2.1403 -18.7013 114 161 186
-8.9524 2.5000 -21.4286 162 143 85
3.8702 5.0265 -21.2389 137 151 134
-1.4497 -2.1879 -12.0805 99 74 51
-2.1248 -3.9203 -9.5618 106 104 83
-5.7619 7.4524 -21.4286 136 164 77
-3.2782 -3.0285 -9.7693 78 69 20
-2.2894 -2.5080 -11.5756 144 120 91
-3.0525 -2.7091 -11.4467 103 76 35
4.2404 5.3552 -19.6721 96 117 57
0.7064 0.6534 -15.8940 171 166 80
-4.8096 1.3948 -14.4289 125 91 55
-1.5104 -2.7776 -11.5200 82 63 46
-5.1930 7.5556 -21.0526 83 132 53
-2.5516 0.3452 -13.5084 86 62 38
-2.2973 -1.7162 -12.1622 93 73 50
0.1008 -1.0588 -15.1260 116 150 113
-3.1905 3.7857 -21.4286 172 155 106
-2.4089 -2.6751 -11.4105 117 96 58
-3.7500 1.1406 -14.0625 111 86 60
-4.8284 1.1203 -14.2012 98 77 62
-0.6013 0.0501 -15.0313 128 109 34
3.3580 8.2716 -22.2222 144 200 127
-4.5399 -4.0661 -9.9174 144 143 104
0.6785 -2.4405 -9.8495 151 194 136
-7.8519 0.9444 -16.6667 239 105 97
-5.4829 -1.6324 -11.2150 143 75 91
-3.6344 -2.0108 -9.6774 128 129 90
-10.1429 1.9286 -21.4286 134 155 65
4.0745 8.1739 -22.3602 129 183 74
3.0588 5.4353 -21.1765 138 145 123
-1.5500 5.9750 -22.5000 94 138 38
1.0025 2.6266 -18.0451 149 72 116
-2.0000 7.9744 -23.0769 105 139 41
-4.7353 -0.6029 -13.2353 156 124 86
0.3313 -1.3416 -14.9068 111 88 95
0.5783 1.5614 -17.3494 209 185 174
-1.6876 -3.2363 -9.6128 180 184 167
-2.7949 -2.4231 -11.5385 183 153 97
0.3441 -0.7742 -15.4839 166 159 67
-5.8443 7.5928 -21.5569 104 155 68
-1.6732 9.5948 -23.5294 114 159 59
6.0131 9.4379 -23.5294 216 179 30
-6.5714 3.4524 -21.4286 146 128 90
-0.4093 1.4326 -16.7442 109 176 153
-6.5160 0.0853 -15.3518 102 113 69
-4.0638 -2.0532 -9.5745 204 206 182
-3.1905 5.6429 -21.4286 161 144 106
-3.5238 5.7381 -21.4286 168 151 104
-2.7436 -2.4231 -11.5385 170 142 78
-1.4304 1.4470 -14.9688 122 98 63
-3.9290 3.6213 -21.3018 200 178 137
-7.6043 -1.0495 -15.4839 98 126 64
-2.2553 -3.6489 -9.5745 184 186 167
-2.2786 5.4241 -22.2910 162 144 100
-2.0909 0.4091 -13.6364 116 85 45
-3.7170 -2.9372 -9.6128 79 63 20
-4.8142 -1.6566 -12.7434 89 57 34
-6.4416 -1.3333 -15.5844 59 63 50
1.9211 -0.2724 -12.9032 189 34 48
-4.3165 -0.6475 -12.9496 109 86 49
-2.3365 -2.7048 -11.4286 124 100 61
0.0426 -1.9468 -9.5745 140 208 95
-8.2381 5.5000 -21.4286 184 168 128
0.1325 -1.3747 -14.9068 142 118 112
-2.1529 6.9235 -22.0183 149 146 88
-2.7881 -2.8006 -11.3030 94 63 42
-3.5148 -2.7925 -9.7035 99 77 36
-3.3297 -3.0811 -9.7297 69 31 15
-2.7270 -3.7177 -9.5872 155 157 160
1.1261 4.5748 -21.1144 99 142 67
-10.1818 7.4424 -21.8182 71 95 36
-2.1212 0.2879 -13.6364 71 50 27
-4.3810 7.2619 -21.4286 190 170 133
-3.8988 -3.2277 -9.5872 73 37 16
-2.4678 -1.3966 -12.2034 117 106 107
-2.9519 -3.2834 -9.6257 180 188 158
0.2826 0.5828 -15.8940 148 151 38
3.2360 -0.6142 -13.4831 249 44 65
-3.8524 0.9476 -13.9806 102 79 57
-3.1736 -2.4353 -9.9174 123 130 70
3.4595 6.9910 -21.6216 96 155 86
-3.4545 0.5303 -13.6364 80 63 46
-1.8387 1.4677 -14.5161 84 70 64
-0.2508 7.5486 -22.5705 140 168 70
-6.4403 -0.4864 -15.0943 107 117 55
-8.0476 5.6429 -21.4286 186 171 135
5.1148 4.0874 -19.6721 57 121 32
-2.4030 0.5932 -13.6882 89 66 48
-3.2120 0.1951 -13.5084 109 85 58
-6.8966 -1.6724 -15.5172 89 63 70
-0.6217 -0.0491 -14.7239 122 93 42
1.3638 -0.7184 -10.9589 242 49 56
-5.0000 4.6429 -21.4286 84 110 51
-3.2857 -0.6714 -12.8571 125 98 65
-1.7778 9.5948 -23.5294 97 119 47
2.5836 3.3768 -20.3966 171 186 196
-4.7179 -0.8059 -13.1868 142 113 77
-4.5312 -1.2466 -9.7561 169 148 88
-3.9631 -2.3505 -9.4862 104 105 63
-0.2376 5.2871 -17.8218 206 202 185
-7.5516 4.7906 -21.2389 127 161 71
-7.8824 10.5588 -26.4706 94 153 78
1.5193 6.1009 -21.3650 109 148 102
-3.4483 -1.3931 -12.4138 127 103 62
-3.3533 7.5449 -21.5569 163 148 106
-2.5135 -1.4459 -12.1622 44 35 20
-1.9048 3.7857 -21.4286 161 143 93
5.2645 9.5226 -23.2258 147 144 111
-2.9576 5.5030 -21.8182 63 109 49
-3.6461 -2.6702 -9.6515 126 132 88
-9.2381 4.7857 -21.4286 193 176 134
-0.6554 2.1398 -17.3494 126 104 125
-2.6486 -1.6351 -12.1622 108 86 59
2.8657 7.1403 -21.4925 92 143 72
-7.3735 8.0723 -21.6867 174 164 120
-3.3538 -3.9840 -9.6128 153 144 129
-2.5135 -1.6081 -12.1622 12 11 9
-9.1905 3.2619 -21.4286 150 125 95
-7.3810 5.7857 -21.4286 160 134 62
0.7742 -0.9570 -9.6774 54 110 42
-1.0701 9.5032 -22.9299 122 166 59
1.8036 0.2764 -13.0909 205 36 43
0.9882 4.7294 -21.1765 104 171 65
-7.2885 0.0868 -15.6182 152 126 71
-0.6500 7.5750 -22.5000 123 162 65
-1.5100 0.8193 -14.4578 138 106 71
-5.0178 7.4556 -21.3018 78 137 61
-9.5227 7.9517 -21.7523 188 171 134
-2.2414 2.2931 -15.5172 100 83 57
-6.5238 5.8333 -21.4286 88 137 29
-4.9524 5.7857 -21.4286 159 137 93
1.3894 -2.6377 -9.7693 147 197 144
-3.6774 -2.6344 -9.6774 129 127 90
2.2571 -0.9000 -12.8571 212 33 39
-3.0803 -2.6704 -9.9723 127 127 75
0.2394 4.1696 -17.9551 121 106 146
-3.6676 -2.4343 -9.6515 132 131 92
-1.8649 -1.9054 -12.1622 120 95 49
3.8571 5.5476 -21.4286 86 99 114
6.0741 5.5556 -22.2222 58 90 38
-2.6490 -3.9523 -9.5364 180 185 155
-0.0346 -0.1212 -15.5844 174 171 67
-6.7143 3.5476 -21.4286 133 113 69
-9.4286 7.1667 -21.4286 157 146 93
-4.1429 4.6429 -21.4286 166 150 110
-9.0000 4.7381 -21.4286 184 165 117
-3.9946 -3.8327 -9.7166 68 47 20
4.5117 3.1123 -18.7990 129 184 158
0.1154 2.4423 -17.3077 211 190 179
1.2826 -2.5326 -9.7826 151 190 131
-4.0266 -1.5020 -9.5872 157 143 88
-3.1429 4.6429 -21.4286 167 145 104
-2.9880 8.4578 -21.6867 64 98 49
-3.8562 -2.4394 -9.5872 116 108 74
2.5853 -0.9048 -12.9264 209 39 46
-3.0759 -1.7673 -12.1417 105 83 61
-0.5831 1.2574 -16.4009 172 219 126
-3.6298 -0.4791 -13.0672 96 84 63
0.7273 -0.3636 -15.5844 196 190 185
-1.7286 -3.7628 -9.4862 179 157 120
-3.1160 -2.8398 -9.9448 100 84 18
-1.6735 -3.1315 -11.4105 79 55 31
4.5957 3.3404 -19.1489 72 135 67
-9.7515 1.9645 -21.3018 80 121 39
0.8218 -0.3263 -10.8761 65 59 57
-4.0476 5.5000 -21.4286 162 145 102
-3.1456 0.3478 -13.6106 102 86 49
-4.1780 3.6795 -21.3650 196 176 137
-3.4444 -1.2917 -12.5000 142 110 63
1.4762 6.4048 -21.4286 126 154 114
3.3930 -0.3580 -14.0078 255 54 72
2.4570 0.3364 -13.1627 227 40 54
-3.2693 -3.3018 -9.7429 66 29 14
-4.2340 -1.7766 -9.5745 111 75 77
5.0000 7.3250 -22.5000 135 182 81
-4.2381 6.1667 -21.4286 168 149 102
6.3801 5.7072 -22.4299 128 169 75
-2.3404 -3.2021 -9.5745 195 199 177
1.1463 6.4716 -21.4925 106 158 90
-0.2508 7.4984 -22.5705 137 169 70
-9.2857 5.5476 -21.4286 150 134 86
-1.3333 -2.7051 -11.5385 136 97 51
-4.0742 -2.1720 -12.1417 93 77 58
-7.5266 1.9172 -21.3018 139 113 69
-8.8834 8.8589 -22.0859 173 162 122
-1.2717 -0.8725 -13.3087 128 97 60
-9.8388 5.3731 -21.4925 118 102 61
0.9959 -1.2016 -9.7429 51 104 42
4.5141 9.1034 -22.5705 152 194 87
0.0500 9.0750 -22.5000 107 161 65
-1.5217 -3.4022 -9.7826 173 154 111
1.0014 -2.8626 -9.7959 68 131 111
4.4626 1.6871 -16.3265 102 163 197
-6.4671 2.8982 -21.5569 137 108 46
-0.8081 0.2101 -14.5455 116 89 43
3.8383 3.1698 -19.4070 132 184 81
-5.2603 0.3914 -14.0900 124 91 59
1.6142 6.3383 -21.3650 117 162 98
-4.0135 -2.1684 -12.1212 103 80 61
-10.1429 3.5476 -21.4286 191 168 126
-2.3881 6.7104 -21.4925 158 141 94
0.1918 1.5923 -17.2662 210 175 156
3.6460 0.9027 -15.9292 82 133 68
-8.4762 4.5952 -21.4286 182 162 121
-2.9845 -1.3402 -12.4352 121 99 70
2.9597 -0.6886 -13.1868 234 38 53
2.7273 3.8864 -20.4545 202 202 179
-1.8485 0.3182 -13.6364 65 51 35
-0.8125 -0.4844 -14.0625 96 69 36
-3.9841 -3.5285 -9.5364 39 17 12
2.0476 8.2619 -21.4286 120 157 129
4.0357 2.4821 -16.0714 59 59 45
0.6321 2.6272 -17.7778 109 117 166
4.3243 4.3892 -19.4595 65 121 47
3.4844 1.0489 -16.0000 165 163 153
1.2108 -3.0595 -9.7297 150 147 102
0.3441 -2.0753 -9.6774 214 43 62
-14.4667 9.7667 -30.0000 95 154 46
3.2749 4.7953 -21.0526 185 195 158
-4.8571 6.5476 -21.4286 186 166 134
-3.0476 4.0714 -21.4286 175 149 111
-3.9573 -0.8683 -12.8114 138 106 73
-0.3960 4.4950 -17.8218 194 181 160
2.9070 -1.0873 -10.3004 190 38 54
-3.1905 6.9762 -21.4286 160 144 106
0.5517 -0.9138 -15.5172 179 166 158
0.5505 -0.4989 -15.4839 183 172 159
-2.0312 0.8906 -14.0625 82 76 64
0.8584 -0.4292 -15.4506 144 137 115
4.1609 3.6676 -19.3029 83 137 61
-5.0295 0.8644 -14.1454 138 109 66
-1.7836 9.5738 -23.6066 79 106 49
-7.6207 -0.7759 -15.5172 155 158 64
-3.8238 -3.0227 -9.6128 67 33 28
-2.5106 -3.8830 -9.5745 179 183 159
-4.4762 3.9286 -21.4286 164 144 105
-1.3684 -2.4079 -11.8421 132 96 44
-9.9821 6.9493 -21.4925 89 140 55
-5.0476 3.7857 -21.4286 170 148 106
-9.4850 7.5928 -21.5569 189 171 129
-2.0703 -2.6198 -11.5016 117 87 57
-4.8383 8.6946 -21.5569 156 142 112
0.1176 -1.8676 -13.2353 184 148 110
3.4462 0.7912 -15.8242 73 121 65
2.8966 4.7126 -20.6897 121 174 125
-4.4524 -0.7899 -12.9264 116 92 77
-0.4967 0.6563 -15.9645 180 185 68
2.8541 -1.0523 -12.9730 208 31 37
-6.6190 4.7381 -21.4286 186 170 128
-2.9179 9.1185 -21.8845 182 171 130
1.8235 0.9559 -13.2353 203 36 56
-1.3953 0.0775 -13.9535 142 106 69
0.9897 0.8412 -14.8454 141 92 130
1.6000 1.1680 -14.4000 220 211 202
0.8731 -2.6521 -9.8226 136 175 121
4.6126 6.5586 -21.6216 99 160 56
-4.9276 -0.5195 -13.3581 126 96 54
-7.2857 5.1190 -21.4286 95 134 52
-9.1905 2.5476 -21.4286 159 144 92
-1.8174 1.5740 -14.6045 91 66 53
-1.6740 1.1429 -14.4869 131 109 67
-0.4231 3.4038 -17.3077 205 127 134
1.5868 -1.8623 -9.9174 75 66 51
-1.3082 6.9182 -22.6415 61 83 52
-3.1714 -0.5857 -12.8571 185 163 122
4.1542 1.7069 -18.5090 175 172 167
-0.9087 0.4381 -14.6045 96 67 53
-3.8270 -1.8703 -9.7297 211 202 192
-7.2857 7.1190 -21.4286 183 171 127
5.8893 9.2508 -23.4528 172 156 40
-3.1905 4.8810 -21.4286 158 142 89
-10.1254 6.1851 -21.4925 154 144 86
6.6316 9.8684 -23.6842 209 89 67
4.7660 3.4255 -19.1489 76 139 67
-5.1429 5.8333 -21.4286 185 173 108
-4.7284 4.9433 -21.4925 115 129 60
-10.7311 8.4350 -21.7523 181 169 129
-5.0000 3.6429 -21.4286 155 136 99
0.9224 0.6918 -15.9645 139 126 112
-0.8889 1.9130 -17.3913 208 168 174
0.4472 8.5217 -22.3602 106 163 48
0.5122 -2.2805 -10.9756 194 69 75
2.7495 -0.3364 -13.1627 236 38 64
1.1395 5.4362 -21.3650 112 176 75
-6.1905 6.7857 -21.4286 157 146 107
-2.5106 -3.1596 -9.5745 60 68 120
1.5681 -0.7473 -11.0260 208 27 47
-9.0650 9.1393 -22.2910 167 157 112
-4.1277 -2.8830 -9.5745 70 55 21
1.5808 8.4072 -21.5569 121 178 90
-2.2000 -3.4875 -11.2500 215 217 219
0.3455 -2.3860 -9.7166 162 135 114
1.1739 -1.2935 -9.7826 49 122 46
-1.9681 -2.7220 -11.5016 126 101 59
-5.6000 -1.2875 -11.2500 165 92 93
1.8338 4.4241 -20.6304 154 174 87
-6.9792 3.7745 -21.3650 188 162 121
0.2849 5.9110 -21.3650 147 175 77
1.4194 1.1129 -14.5161 160 92 154
-5.0952 5.8810 -21.4286 173 153 98
3.9012 7.5802 -22.2222 122 186 78
0.8545 -0.5661 -9.6128 61 55 46
-4.6054 -1.9568 -9.7297 132 127 89
0.2752 3.4398 -17.6904 88 90 130
-4.6190 3.8810 -21.4286 168 151 104
-6.1905 7.1190 -21.4286 150 129 101
-3.6788 -0.3942 -13.1387 82 72 57
-3.6667 5.4048 -21.4286 159 146 101
0.7257 -0.6393 -15.5508 176 168 150
-0.3226 -1.3065 -14.5161 93 78 73
0.9871 2.9409 -18.5090 119 105 132
-4.3933 -0.1039 -13.3581 110 80 43
2.4348 2.1087 -19.5652 85 80 77
-3.2000 3.3647 -21.1765 171 151 105
4.0981 4.5123 -19.6185 67 124 57
-10.1862 3.9159 -21.6216 164 155 98
-1.1450 -1.3651 -13.2110 127 90 56
0.2781 -2.1925 -9.6257 146 112 80
-2.0958 -2.6198 -11.5016 122 100 64
0.9118 -1.7693 -9.7693 43 93 36
3.9752 8.1242 -22.3602 95 137 50
-2.9563 -3.0804 -10.1551 90 81 34
-6.4192 8.4551 -21.5569 193 175 132
-9.2455 7.4491 -21.5569 159 146 91
-1.3885 -3.4499 -9.6128 127 114 77
-8.2136 1.9228 -21.3650 161 133 75
1.2231 0.3802 -14.8760 213 45 56
-2.5278 -1.1250 -12.5000 131 106 84
-5.7143 8.6905 -21.4286 179 164 133
-1.8672 1.3038 -14.4869 97 76 48
2.9545 3.9318 -20.4545 217 207 212
0.3992 -1.3139 -14.9688 157 137 91
-2.4125 -1.1785 -12.4783 115 106 93
-2.0101 -1.9966 -12.0603 158 125 73
1.8235 0.9265 -13.2353 207 39 54
-3.4762 6.4524 -21.4286 151 135 89
-1.4276 -2.1414 -12.1212 110 75 59
-4.1186 -1.4124 -9.7035 120 87 70
-1.7509 -0.2264 -13.5849 116 86 50
-8.7143 4.6905 -21.4286 178 162 119
2.6234 -0.8505 -12.9730 200 33 47
4.7407 0.3148 -16.6667 97 97 67
1.4575 0.7287 -14.5749 89 44 27
4.2635 6.4910 -21.5569 138 189 66
4.1775 2.4439 -18.7990 205 194 201
-0.6480 7.2523 -22.4299 196 186 177
-9.7143 4.4524 -21.4286 148 170 89
-0.4981 -1.1362 -14.0078 106 67 38
2.2571 -1.1286 -12.8571 216 32 42
-4.3810 7.1190 -21.4286 185 164 128
2.5018 -0.2182 -13.0909 222 36 57
-7.1164 7.9045 -21.4925 173 156 115
-9.0269 7.6657 -21.4925 154 146 86
-2.3222 -3.8455 -9.5872 164 162 154
-1.0206 0.8724 -14.8148 168 124 77
1.1042 -1.0501 -9.7429 54 113 48
-1.5492 -3.1365 -11.4286 84 61 36
-3.1782 -2.9932 -9.7959 89 86 28
-9.6667 5.7857 -21.4286 161 154 92
0.8670 2.1084 -17.7340 208 195 184
-4.4207 -1.0410 -12.8342 151 125 66
0.4366 -2.4338 -9.8226 179 149 134
-2.9189 -1.6351 -12.1622 113 101 74
-8.0000 3.1006 -21.3018 191 164 124
-2.6383 -3.1170 -9.5745 138 145 164
2.0000 -1.6026 -11.5385 251 56 69
2.3116 3.4674 -20.3966 163 192 201
1.1224 -0.2985 -10.7463 183 50 47
-7.6026 0.2246 -15.5508 168 168 79
2.1871 -0.1583 -12.9496 208 29 45
-4.9805 0.4514 -14.0078 108 83 50
-3.1282 -2.4231 -11.5385 119 100 68
-3.3333 5.6905 -21.4286 170 152 108
-3.1429 6.7381 -21.4286 158 149 100
-4.2061 -2.8639 -9.5112 76 59 21
-8.8836 5.2299 -21.4925 192 173 139
-2.1687 4.9398 -21.6867 160 149 94
-4.0969 -1.4533 -12.4567 157 129 86
-2.9408 -3.1277 -11.2150 43 29 23
5.3846 8.8974 -23.0769 144 136 88
-9.9048 1.9762 -21.4286 88 111 30
0.9986 -1.8779 -9.7693 51 108 43
1.0061 1.1197 -14.6045 118 64 28
-2.9358 5.8471 -22.0183 38 77 35
-4.0426 -2.7979 -9.5745 73 52 16
0.6391 -2.5895 -9.9174 154 196 142
-3.6425 -1.7133 -12.1417 118 88 65
1.8149 8.7164 -21.4925 67 105 33
-1.9394 -3.9104 -9.4862 179 182 151
0.5424 1.9952 -17.4334 203 185 176
-5.1818 -0.3788 -13.6364 105 79 39
-2.8664 -2.2801 -11.7264 34 24 8
0.6480 9.0467 -22.4299 107 167 68
3.5354 3.0142 -20.3966 136 191 85
0.6356 -1.4795 -9.8630 61 116 42
-7.3810 5.1190 -21.4286 94 121 59
-0.2006 7.4984 -22.5705 132 168 68
4.3175 3.7460 -19.0476 79 138 63
-2.4894 -3.5426 -9.5745 183 188 162
-3.8443 -1.6379 -12.1827 168 137 84
-4.4600 0.9201 -14.0351 118 97 68
2.8629 -1.2814 -10.3896 97 53 64
-1.7043 -3.0143 -11.4467 87 66 34
-2.3985 -0.1901 -13.1627 165 137 80
-2.9375 1.2656 -14.0625 156 123 87
-1.7377 -3.6556 -9.5364 159 162 145
-8.5714 3.4524 -21.4286 128 150 67
-3.5676 -2.4541 -9.7297 137 140 97
0.0353 0.4415 -15.8940 173 177 55
-10.6344 8.5317 -21.7523 179 170 135
-3.2649 -3.7297 -9.7297 55 41 20
-1.9149 -3.3723 -9.5745 186 192 175
4.1739 4.0652 -19.5652 85 133 68
-8.4260 5.8462 -21.3018 84 140 58
-8.3333 3.7857 -21.4286 125 149 67
-9.6190 5.9762 -21.4286 160 147 92
-8.5714 4.5952 -21.4286 183 160 117
-2.6190 6.9286 -21.4286 158 144 90
-6.4762 6.8333 -21.4286 98 125 62
-1.6271 -1.9390 -12.2034 157 126 75
-0.3077 2.0962 -17.3077 191 170 164
-7.6439 2.7300 -21.3650 188 166 128
-0.5437 3.6311 -17.4757 175 69 103
-2.9972 -2.5352 -10.1408 125 129 70
-6.7532 -1.3680 -15.5844 157 139 85
-2.3961 -2.4863 -11.5942 116 102 59
-1.3947 -2.3816 -11.8421 131 100 42
-8.0239 7.9045 -21.4925 166 149 89
-0.3062 1.5885 -17.2249 187 227 179
-2.1728 7.3333 -22.2222 119 134 74
2.3714 -0.9857 -12.8571 156 45 62
-4.2164 -1.2984 -12.5654 154 127 85
6.0241 4.6024 -21.6867 113 184 58
3.2663 5.2308 -21.3018 146 154 191
-10.6988 6.3373 -21.6867 163 144 98
-1.3266 2.9950 -18.0905 204 189 178
-1.0020 -0.0470 -14.0900 116 87 48
2.1714 -0.9571 -12.8571 212 31 46
-4.3333 4.0238 -21.4286 172 152 94
-5.8270 -0.0161 -14.4869 116 62 38
-0.2508 8.6520 -22.5705 129 165 79
-7.3116 4.5816 -21.3650 108 149 69
0.5548 -2.1193 -9.9861 143 82 85
-1.5414 0.1696 -13.8728 89 49 30
-8.1916 8.4072 -21.5569 159 148 100
-1.4907 1.5072 -14.9068 118 86 55
-3.3030 0.4091 -13.6364 141 118 93
-3.0090 5.9940 -21.4925 161 149 103
-2.7750 -3.1125 -11.2500 75 57 25
-2.9500 -3.3875 -11.2500 40 28 11
-2.9744 -2.3718 -11.5385 154 125 61
0.7596 -0.1543 -10.6825 136 47 51
-2.1669 -2.9102 -11.3386 113 92 60
0.4986 -2.7425 -9.7561 102 204 82
4.9500 7.9750 -22.5000 123 156 69
0.2692 1.7885 -17.3077 91 89 146
-1.5566 -2.9984 -11.4833 70 50 22
4.1075 6.3284 -21.4925 148 192 56
6.0903 8.3355 -23.2258 220 128 59
4.9231 5.4725 -19.7802 165 200 79
-3.8817 4.2840 -21.3018 90 114 31
-3.6998 2.0933 -14.6045 130 98 66
-3.8824 -0.2500 -13.2353 114 96 63
-4.3695 1.6546 -14.4578 89 63 53
-5.9524 7.1667 -21.4286 158 142 101
-2.4169 5.0514 -21.7523 159 147 96
-3.5161 1.9516 -14.5161 144 112 67
-2.5000 -3.0125 -11.2500 84 57 39
-7.3333 3.5476 -21.4286 190 169 133
-5.4611 5.1976 -21.5569 82 124 41
-3.7433 -1.9786 -9.6257 117 120 87
0.2759 3.0542 -17.7340 144 141 152
0.5284 -3.0964 -9.5112 112 209 72
-0.8292 -0.7524 -13.8196 171 128 67
-2.5714 6.8333 -21.4286 151 136 95
-3.8157 -3.8916 -9.7561 43 31 22
0.8910 1.4915 -17.4334 226 221 226
-1.0720 2.7593 -17.8660 122 113 134
3.5218 -0.7438 -13.6622 252 56 64
4.7850 7.5016 -22.4299 137 183 71
-0.7562 4.5572 -17.9104 176 167 165
-3.5603 -3.0349 -9.6515 100 68 26
-3.2903 2.0161 -14.5161 117 92 67
-0.7571 8.2019 -22.7129 123 148 57
1.3215 5.1209 -21.2389 117 175 78
-1.8936 -3.1383 -9.5745 31 43 123
-10.2857 3.0714 -21.4286 186 168 123
3.8892 7.5077 -22.1538 122 184 84
-0.2705 4.0773 -17.3913 176 171 185
3.0952 6.5000 -21.4286 129 175 89
2.0225 3.2135 -20.2247 97 116 65
4.3500 8.8250 -22.5000 154 189 79
-3.0000 -1.6081 -12.1622 121 99 55
-4.2255 3.6795 -21.3650 188 169 124
-3.0376 -2.1604 -11.7840 109 79 54
3.3412 4.8706 -21.1765 213 204 208
-0.7449 0.0810 -14.5749 138 108 56
-3.8056 -1.2917 -12.5000 145 114 66
-5.3225 0.9899 -14.6045 130 108 57
-3.8095 4.5476 -21.4286 88 117 38
-4.6493 1.4589 -14.4289 123 104 69
1.9061 0.2744 -12.9964 196 31 51
-4.5301 1.5582 -14.4578 81 70 49
2.2994 8.0240 -21.5569 127 180 139
1.5223 1.5061 -14.5749 88 90 84
-9.7143 3.5952 -21.4286 188 167 128
-2.8044 -2.8920 -11.2676 75 51 24
-3.0282 -3.0819 -9.6644 183 183 166
-3.8642 0.4377 -13.5849 54 37 25
-4.6442 -0.1648 -13.4831 149 119 67
-4.3243 -2.2838 -12.1622 158 160 134
4.9700 3.2916 -19.6185 138 197 104
-5.5500 -1.7125 -11.2500 155 85 83
-0.9172 8.7898 -22.9299 119 162 40
-0.0000 -1.5277 -14.7844 156 84 98
-3.9032 1.9516 -14.5161 158 125 61
-1.2275 -3.4392 -9.5238 118 203 86
-2.3830 -3.1170 -9.5745 20 30 128
-1.7730 -3.3858 -9.6128 177 186 158
-1.9341 -3.0016 -11.3030 89 72 30
3.0368 2.9688 -20.3966 76 128 61
-1.6673 0.9138 -14.4289 103 80 56
1.4309 -2.5908 -9.7561 146 199 137
6.1134 3.8448 -21.4925 134 190 65
-6.0000 4.6905 -21.4286 150 120 57
-9.6955 5.4687 -21.4925 130 110 68
4.6522 5.1957 -19.5652 91 80 68
-5.3333 -0.1085 -13.9535 78 60 37
-7.4299 0.9011 -16.5517 123 173 120
-7.9048 6.5476 -21.4286 198 189 133
-7.7744 -1.1627 -15.6182 50 64 51
-4.6384 7.1661 -23.4528 76 121 29
-5.7278 7.5976 -21.3018 111 157 76
2.7161 -1.4037 -10.2710 202 39 56
-3.4000 2.4167 -15.0000 131 108 63
4.5532 3.8085 -19.1489 76 122 75
-3.6335 1.6733 -14.3426 110 82 62
-4.8794 -1.6312 -12.7660 104 71 40
-2.2711 -2.6411 -11.4833 117 100 66
0.0333 -1.1833 -15.0000 186 217 131
-2.2222 -1.0694 -12.5000 220 195 169
0.7213 -2.3279 -9.8361 154 192 127
-2.6250 -3.5375 -11.2500 179 184 160
-2.2655 -0.8071 -12.7434 166 132 111
-3.3810 4.9286 -21.4286 154 136 95
-2.1538 -2.5769 -11.5385 87 73 71
-6.0000 7.1190 -21.4286 162 146 109
-4.1657 1.3412 -14.2012 118 92 48
-8.8095 4.7857 -21.4286 185 166 130
-3.8451 -2.5100 -9.6128 118 116 80
-4.2750 1.2102 -14.1454 130 105 65
-8.8095 3.8810 -21.4286 97 129 44
0.1333 -1.1833 -15.0000 123 136 79
-9.8095 3.2619 -21.4286 180 156 107
-0.9132 3.9901 -17.8660 110 106 142
-4.4480 -1.6518 -9.7166 181 117 114
1.3294 5.9110 -21.3650 99 164 75
-4.5515 -1.7173 -12.5654 109 86 54
-6.6944 2.8724 -21.3650 148 123 70
0.2308 2.3654 -17.3077 74 80 129
-1.4871 -1.9415 -12.3924 157 138 92
4.1034 -0.1207 -15.5172 111 164 138
-0.1878 1.4460 -16.9014 128 188 164
-4.1946 -1.3946 -9.7297 111 81 107
3.5556 3.8063 -20.5128 146 188 68
-6.3333 4.7381 -21.4286 187 171 123
-3.6255 -3.7883 -9.7693 59 21 21
-4.4377 0.1660 -13.5849 92 70 46
-7.4232 9.0031 -22.5705 143 172 103
-1.9412 -0.4265 -13.2353 124 91 55
-7.1844 0.0521 -15.6182 110 135 66
-1.5947 -2.1927 -11.9601 119 91 49
0.8242 7.6364 -21.8182 152 179 70
-2.5185 8.8148 -22.2222 166 159 114
6.3313 4.8834 -22.0859 117 178 64
-5.6088 -1.2394 -11.2676 75 57 34
0.1758 0.1231 -15.8242 165 166 61
-3.3772 -1.3702 -12.4567 164 132 83
0.8150 -0.8472 -9.6515 52 104 46
-3.3867 -3.8318 -9.7693 46 26 21
1.3871 1.3387 -14.5161 132 70 119
2.9510 -0.8415 -10.3746 162 41 53
0.9132 2.3623 -17.8660 207 196 196
-4.0142 -0.8968 -12.8114 130 100 67
-1.4855 0.2940 -13.9265 93 56 39
-3.9678 -1.7480 -9.6515 152 140 82
-3.5238 4.9286 -21.4286 94 66 29
-1.8123 8.3625 -23.3010 87 134 32
-7.5964 4.0593 -21.3650 182 163 120
-3.7033 3.6795 -21.3650 79 110 30
-3.4341 -2.4585 -11.7073 116 121 63
-1.8824 9.1765 -23.5294 50 76 39
-4.5977 0.4751 -13.7931 174 150 100
-3.3514 -3.9459 -9.7297 34 29 9
-6.4570 3.3472 -21.3650 158 132 94
-3.6859 -1.0471 -12.5654 94 75 50
-9.0000 4.8333 -21.4286 187 173 132
3.5862 4.1609 -20.6897 109 150 80
4.9231 6.8185 -22.1538 82 100 78
-6.5238 2.9762 -21.4286 140 116 62
-5.1429 3.4524 -21.4286 121 94 62
-0.2308 3.4423 -17.3077 177 106 126
-7.4286 6.8333 -21.4286 182 168 133
1.1304 -1.8152 -9.7826 49 112 41
5.3057 1.6788 -18.6528 172 174 153
-10.1429 5.2143 -21.4286 159 145 91
0.1765 -1.8971 -13.2353 180 153 108
6.1000 6.6750 -22.5000 88 135 44
-1.5084 -2.1684 -12.1212 121 104 72
-2.2432 -1.7703 -12.1622 138 112 75
-9.3413 5.8204 -21.5569 150 176 98
-1.1000 6.3750 -22.5000 109 127 43
-3.8613 -3.4453 -9.6000 83 30 16
-3.9201 -2.8442 -9.5872 79 65 28
0.3825 -2.6454 -9.5618 113 212 86
-3.2954 -3.8266 -9.7561 44 30 13
-3.8710 -1.8817 -9.6774 208 208 170
0.9917 0.7438 -14.8760 142 124 129
-3.5821 -3.7883 -9.7693 62 34 24
2.2394 0.6924 -13.2597 218 35 59
-3.7143 4.8333 -21.4286 170 156 103
-3.9519 -1.5701 -9.6128 161 137 88
-4.5344 -1.9109 -9.7166 153 145 96
1.5101 -0.0899 -16.1798 213 41 61
-4.2766 -1.6702 -9.5745 139 94 118
-10.2381 5.3095 -21.4286 150 136 85
-3.2955 6.2328 -21.4925 169 152 114
-3.9189 -1.7703 -12.1622 152 125 90
3.0000 6.8333 -21.4286 138 190 77
1.9524 8.3095 -21.4286 111 154 117
-0.8750 -0.3594 -14.0625 100 70 41
-1.2308 1.2807 -14.9688 163 127 65
1.0204 -1.9647 -9.7693 46 113 45
5.8872 4.1068 -21.3650 55 91 55
6.0500 6.6750 -22.5000 74 120 44
-2.7698 0.1326 -13.2597 117 96 72
-4.3333 6.2619 -21.4286 174 156 106
-9.2381 6.8333 -21.4286 151 143 83
-0.6375 -0.4303 -14.3426 155 111 50
-8.1723 7.3600 -22.1538 137 175 93
-2.1687 6.2892 -21.6867 153 139 95
4.3571 1.0536 -16.0714 84 115 61
-3.7500 -1.2917 -12.5000 135 112 65
-4.5301 8.6506 -21.6867 167 148 114
2.6466 0.6466 -13.5338 250 54 63
3.8879 8.6480 -22.4299 122 182 67
-3.7634 -3.9247 -9.6774 16 12 0
-10.2381 4.9762 -21.4286 129 113 50
-2.5745 -3.5000 -9.5745 189 195 171
-3.8298 -2.3298 -9.5745 118 119 77
-1.5484 -2.5419 -11.6129 143 107 71
-9.3810 4.8333 -21.4286 157 149 91
-0.8998 2.9144 -17.6039 104 99 131
1.0368 0.0353 -10.6038 253 68 95
-5.3333 7.1345 -21.0526 108 145 63
1.2609 -2.2935 -9.7826 151 189 140
-8.8563 8.5872 -22.0183 163 148 99
-7.6914 2.8724 -21.3650 185 170 121
-1.9179 -2.4302 -11.8227 25 15 13
-6.5714 4.5952 -21.4286 186 166 120
1.0204 -1.8996 -9.7693 47 111 29
0.8261 -1.7065 -9.7826 49 112 51
-4.3554 0.3176 -13.6106 71 53 24
1.9765 5.7176 -21.1765 53 87 19
2.1471 1.2500 -13.2353 214 37 60
-1.7000 5.9250 -22.5000 90 138 42
-2.5238 6.3095 -21.4286 133 123 60
1.9903 -1.4346 -11.6317 173 46 54
-5.5714 5.9762 -21.4286 185 164 133
0.3556 3.3778 -17.7778 196 193 181
-1.2966 -1.9172 -12.4138 105 75 55
-2.7447 -3.9468 -9.5745 185 192 164
2.2857 4.9143 -20.5714 98 138 88
3.5134 5.8160 -21.3650 56 78 58
-3.9309 -2.4329 -9.5618 111 108 61
-2.0851 -3.3085 -9.5745 102 117 154
-1.7847 0.7671 -14.0900 60 43 42
0.6919 -3.0378 -9.7297 106 196 83
-3.1381 -2.3094 -9.9448 138 141 83
-1.9918 1.7469 -14.6939 116 86 62
0.2065 -0.7742 -15.4839 137 126 42
2.5355 0.1894 -13.1148 238 38 64
-1.6142 3.4421 -21.3650 108 98 121
2.0909 3.8409 -20.4545 68 98 27
-0.3540 0.5487 -15.9292 152 154 45
-0.5047 9.1104 -22.7129 118 164 43
2.9048 6.5476 -21.4286 138 187 83
3.8842 1.7639 -16.0356 86 76 63
-3.1472 -2.7400 -9.9037 137 139 87
2.0476 7.2619 -21.4286 123 176 69
-0.0652 -1.5543 -9.7826 170 145 104
3.2060 -0.3781 -13.6106 248 52 63
-3.9763 3.4793 -21.3018 131 115 71
-6.8225 -1.4372 -15.5844 27 31 37
-4.0476 4.4524 -21.4286 166 148 94
-2.4681 -3.4149 -9.5745 164 170 172
0.3084 1.9855 -17.3494 60 75 143
-3.6247 -3.5067 -9.6515 74 37 13
-0.0800 4.9000 -18.0000 206 201 196
4.1530 4.9180 -19.6721 71 88 53
0.0769 2.1731 -17.3077 198 174 168
4.7568 4.1730 -19.4595 76 127 56
2.6715 -0.9623 -12.9264 129 178 76
0.8434 -0.2289 -10.8434 64 59 46
0.9231 1.4038 -17.3077 168 116 103
-2.1424 -1.5593 -12.2034 38 30 17
-0.4592 0.5828 -15.8940 177 183 82
-0.0000 4.4776 -17.9104 97 78 110
-2.7188 1.2344 -14.0625 61 47 32
5.2821 9.0513 -23.0769 137 184 113
0.6196 -2.3347 -9.9585 169 205 147
1.7680 0.6630 -13.2597 210 38 63
-5.1027 -1.1964 -12.9730 90 50 64
-3.4641 -2.6089 -9.7429 141 143 91
-6.8426 -0.8340 -15.3191 47 46 20
2.2652 -0.7312 -12.9032 192 26 54
4.1429 1.7321 -16.0714 72 76 54
-1.9128 -2.5460 -11.6317 146 120 105
-1.4576 1.4410 -14.9068 124 97 56
-4.4361 -1.3244 -9.6904 156 88 93
-4.0266 -1.6937 -9.5872 122 86 81
-4.7265 1.2934 -14.3713 101 79 55
-2.1518 -3.8668 -9.5872 175 178 158
-9.0060 6.0120 -21.5569 155 176 111
-0.1151 1.5923 -17.2662 191 182 156
-9.9524 3.5952 -21.4286 187 167 119
-9.8388 5.2299 -21.4925 140 125 75
-2.7239 -2.9920 -9.6515 218 219 225
-3.8802 7.0659 -21.5569 94 124 66
-5.5937 -1.1213 -11.3386 218 195 176
-5.1727 1.1084 -14.4578 129 110 61
-5.1104 8.9075 -21.4925 182 161 127
0.4486 -2.0062 -11.2150 210 44 43
-9.8307 9.0533 -22.5705 144 176 85
0.7596 5.1039 -21.3650 123 172 83
-5.3435 -0.6528 -13.6622 95 71 28
3.1150 5.4985 -21.2389 143 156 128
-3.4688 -3.4580 -9.7561 88 51 26
-3.9398 0.3459 -13.5338 75 57 31
-2.9195 -0.5581 -12.8801 91 80 71
0.7853 7.9264 -22.0859 127 174 70
-3.5747 -2.6595 -9.6904 138 136 90
3.0751 7.1351 -21.6216 85 126 72
-3.6776 8.8119 -21.4925 188 170 139
-3.6791 -2.6631 -9.6257 128 133 84
5.5205 4.8889 -21.0526 117 181 127
0.9973 -1.4851 -9.7561 48 109 44
-3.4735 -2.1818 -9.7693 142 137 99
-2.1911 8.2293 -22.9299 98 137 35
-10.1333 8.0242 -21.8182 168 149 121
-3.9536 -2.2687 -11.9403 210 219 192
-4.8095 4.3571 -21.4286 161 144 103
3.6714 3.3768 -20.3966 49 85 44
4.4497 5.9408 -21.3018 108 155 82
-4.8273 0.1973 -13.6622 107 85 55
-4.0584 -3.3466 -9.5618 72 33 18
-9.7804 4.1543 -21.3650 30 40 13
-0.0708 0.3009 -15.9292 152 155 44
-0.4964 1.6611 -17.1838 194 159 155
4.0242 6.7636 -21.8182 111 175 69
3.6429 1.5893 -16.0714 99 117 129
-7.0000 6.9286 -21.4286 181 166 124
-0.2692 1.8269 -17.3077 183 154 180
1.3478 -1.7500 -9.7826 53 111 35
-4.7407 -0.3111 -13.3333 119 94 68
2.8167 -1.1429 -10.3896 197 38 59
-3.3043 -2.8804 -9.7826 98 89 45
-1.4127 -0.2303 -13.8196 109 82 67
4.4497 5.9882 -21.3018 83 129 53
-2.3040 -3.8507 -9.6000 163 164 155
-4.6276 0.1361 -13.6106 98 78 52
4.8392 4.6866 -19.6185 70 129 60
-4.1802 7.0390 -21.6216 85 111 41
4.3333 6.1190 -21.4286 159 199 74
1.8095 7.0714 -21.4286 76 107 24
-3.4722 -1.2361 -12.5000 137 109 65
1.3279 1.7328 -14.5749 117 58 17
-6.5096 0.0171 -15.4176 83 90 46
0.6757 -1.4060 -9.8093 60 119 40
-9.2381 4.9762 -21.4286 161 146 96
-2.1473 -2.4484 -11.7840 17 13 11
0.3785 -0.5333 -15.4839 178 179 72
-5.2060 8.1433 -21.4925 156 139 96
2.8818 -1.2334 -10.3746 113 46 58
5.7143 6.9317 -22.3602 62 97 72
3.5000 1.2321 -16.0714 167 171 154
-2.6524 -3.8396 -9.6257 174 177 171
-5.3810 7.9286 -21.4286 91 147 68
3.6491 4.6550 -21.0526 147 193 63
-4.7619 4.3095 -21.4286 166 152 102
-1.8935 3.3373 -21.3018 119 112 40
-3.1575 0.5920 -13.6622 89 70 58
1.0014 -2.9714 -9.7959 118 115 71
-5.4762 5.3571 -21.4286 117 123 60
1.0667 1.6646 -14.5455 93 41 23
-0.6184 2.4155 -17.3913 136 120 141
-2.0851 -3.4574 -9.5745 140 148 156
-3.7353 -0.2206 -13.2353 142 121 79
-3.1062 -0.2491 -13.1868 153 131 99
0.8043 -1.7500 -9.7826 52 116 37
-5.1663 0.4853 -14.0900 134 101 69
-2.0870 -2.4863 -11.5942 146 124 82
-10.4264 8.8649 -21.6216 176 164 125
-10.0306 8.0979 -22.0183 179 164 127
0.7650 -2.7869 -9.8361 60 141 108
4.4905 5.8638 -19.6185 80 69 69
-8.7574 3.6686 -21.3018 92 114 49
-3.5243 -3.4054 -9.7297 39 41 42
-3.8318 -0.4241 -13.1627 127 95 62
-4.2192 -1.8219 -12.3288 117 96 77
-1.5197 -3.4193 -9.7693 157 144 102
2.1053 5.7310 -21.0526 118 173 121
-2.0000 3.8810 -21.4286 148 127 94
4.4749 3.6939 -18.9974 79 146 83
-0.2705 2.7633 -17.3913 148 148 156
-5.0240 1.3280 -14.4000 140 115 55
0.3810 5.9286 -21.4286 134 174 73
-9.6190 4.9762 -21.4286 149 140 88
-9.1976 6.0599 -21.5569 154 181 105
-2.6220 0.3128 -13.4078 195 170 130
-2.7241 1.4247 -14.0900 84 68 46
0.8455 -1.3333 -9.7561 52 112 44
4.7205 6.9814 -22.3602 116 178 71
-3.1325 8.4096 -21.6867 86 143 64
-0.8564 2.4720 -17.5182 87 92 146
-3.0080 -3.5093 -9.6000 183 184 162
-4.9697 -0.1061 -13.6364 139 113 58
5.1000 7.2750 -22.5000 115 151 110
-6.9792 3.9169 -21.3650 188 168 136
3.0204 1.8980 -18.3673 248 49 59
-6.4703 -0.8264 -15.8242 48 41 46
-3.1111 0.0741 -13.3333 119 85 78
-1.9847 0.6565 -13.7405 20 14 8
-0.8632 -0.6936 -13.8728 135 98 50
-2.2208 -2.8391 -11.3565 95 76 40
-4.7609 -2.2283 -9.7826 144 143 102
-3.2941 -1.3149 -12.4567 133 101 68
-1.8133 -3.4027 -9.6000 174 184 161
3.4909 7.3455 -21.8182 112 153 124
-8.1905 5.9286 -21.4286 183 165 128
-4.6107 0.3817 -13.7405 126 95 59
-4.6933 0.2895 -13.7143 112 88 45
0.4389 3.8105 -17.9551 197 102 143
1.0392 -1.1583 -9.7429 48 111 41
-3.3244 -3.9571 -9.6515 128 131 97
-2.5638 3.3472 -21.3650 146 134 59
-3.5944 1.6382 -14.3141 147 120 68
-3.5007 -3.1893 -9.6644 80 37 29
-8.4510 2.7774 -21.3650 191 167 130
-0.8296 4.0494 -17.7778 52 46 102
1.2709 2.0367 -14.6640 74 96 44
0.9048 5.6429 -21.4286 106 169 55
1.8983 3.3220 -20.3390 172 192 88
-1.7209 3.1860 -20.9302 153 140 73
-1.8650 4.7853 -22.0859 155 158 91
-2.3056 -0.9306 -12.5000 137 115 105
3.7538 -0.9077 -13.8462 182 128 84
-6.2759 -1.9828 -15.5172 133 71 110
-5.9469 3.7994 -21.2389 82 115 41
-3.8503 -3.6257 -9.6257 64 28 23
-6.9643 0.6964 -16.0714 199 223 138
1.0710 -0.7175 -9.6386 51 40 31
-6.8709 8.0961 -21.6216 171 156 108
-3.1784 -3.3622 -9.7297 47 21 14
-9.4762 4.2619 -21.4286 190 171 133
-0.2969 -1.2041 -14.8454 95 74 80
-3.6851 3.8484 -20.9913 94 126 36
-3.6886 8.8862 -21.5569 188 172 135
-1.5789 -2.3553 -11.8421 32 29 14
-8.0000 3.4320 -21.3018 195 175 126
1.1684 0.7951 -14.6045 150 87 133
-2.4250 -3.4125 -11.2500 83 73 39
-2.4167 -0.9306 -12.5000 116 100 79
-3.0229 0.8092 -13.7405 86 62 40
-1.8991 3.6320 -21.3650 174 154 111
-3.5343 8.0000 -21.4925 195 179 138
-9.8065 4.2463 -21.1144 146 173 75
-3.2742 -2.6085 -9.8226 138 149 80
-2.8402 1.5937 -14.2012 112 95 56
-4.1429 6.0238 -21.4286 158 144 99
-8.2381 5.6905 -21.4286 185 174 130
-5.3976 0.6265 -14.4578 128 102 50
-4.9758 -0.4916 -13.4078 127 102 42
-2.8500 -2.9875 -11.2500 70 54 18
6.7368 9.5526 -23.6842 107 136 59
-3.9536 -2.2952 -11.9403 201 207 174
-5.3980 0.7596 -14.5455 134 111 59
-4.1833 -1.4340 -9.7035 105 83 107
-1.2783 -3.3981 -9.5872 103 193 74
-0.0771 2.7952 -17.3494 56 64 100
-0.8566 -0.8413 -13.7667 158 119 59
-1.7380 -2.7220 -11.5016 127 95 58
-9.6667 5.7381 -21.4286 164 148 81
0.7101 5.3728 -21.3018 98 167 63
-2.2500 -3.5125 -11.2500 190 190 173
-3.8714 -1.6650 -12.1827 153 125 75
-5.3493 5.1821 -21.4925 84 126 43
2.0468 -0.0721 -12.9730 205 33 34
-4.8532 0.9237 -14.0900 128 109 66
2.3569 2.4703 -20.3966 93 144 94
-8.3050 3.1202 -21.1144 135 157 75
-4.5310 -1.3451 -12.7434 128 104 85
-3.2304 -3.4580 -9.7561 53 32 14
-3.2043 -3.1286 -9.7429 67 30 19
-5.1582 8.2388 -21.4925 178 158 121
-3.5882 -0.1618 -13.2353 111 89 60
-6.8982 8.0240 -21.5569 169 154 103
-2.3715 1.2490 -14.2292 130 108 63
-4.0793 -3.3712 -9.5112 72 28 8
-1.6649 -1.3968 -12.6984 148 117 73
-1.7662 8.7532 -23.3766 85 132 43
2.6953 -1.1326 -12.9032 88 167 65
-8.8783 2.7300 -21.3650 151 137 85
-6.4276 -0.7775 -15.5508 68 61 34
-4.3333 7.4048 -21.4286 182 165 137
0.4431 7.9015 -22.1538 117 160 62
-9.0269 7.8090 -21.4925 161 145 101
-2.5714 6.8810 -21.4286 146 129 94
-9.3333 3.6429 -21.4286 163 142 78
-7.6190 5.0714 -21.4286 107 152 66
-2.2766 -3.3085 -9.5745 104 116 146
3.5897 0.2222 -15.3846 85 124 56
-9.5714 6.1190 -21.4286 155 139 91
-1.4431 0.5176 -14.1176 135 100 70
0.9739 -0.1971 -10.4348 118 53 57
-3.3409 -2.2577 -11.7455 156 126 77
-3.2909 -3.7131 -9.7429 54 35 21
4.3865 1.7079 -16.1798 169 192 202
-9.2857 4.5476 -21.4286 190 173 132
-1.7811 -0.3711 -13.3581 119 100 71
2.6586 7.8066 -21.7523 100 134 84
-3.4062 1.2969 -14.0625 94 75 48
-2.2734 -0.3885 -12.9496 115 86 64
-3.2315 -2.1149 -11.8227 113 88 55
-2.4169 5.9215 -21.7523 87 131 28
-1.7814 1.4737 -14.5749 81 64 46
0.9412 3.8768 -20.1681 128 181 58
-3.4927 2.3451 -14.9688 124 99 65
-1.8808 -2.1060 -11.9205 154 124 72
-1.5517 -3.0906 -11.4467 70 56 33
-2.1519 -2.8734 -11.3924 82 67 55
-3.2641 -0.3934 -13.1148 119 99 53
-4.1656 -1.1429 -9.6128 93 71 96
-2.1915 -3.4362 -9.5745 130 135 134
4.4235 5.6706 -21.1765 148 189 76
-7.6490 0.9792 -16.6282 246 111 116
-6.3333 3.9286 -21.4286 66 112 38
-0.2981 -1.0766 -14.9068 161 178 90
-9.0539 6.2994 -21.5569 153 175 102
3.9133 7.9009 -22.2910 121 179 75
3.4659 5.8635 -21.3650 60 93 41
-3.0278 -1.1528 -12.5000 126 112 79
0.1304 -2.0978 -9.7826 150 171 89
-2.7085 -2.7461 -11.2853 118 93 49
-2.6857 -0.4143 -12.8571 107 88 60
0.4706 1.2127 -16.2896 146 183 141
-0.4013 8.3511 -22.5705 93 106 42
-3.3141 -1.5076 -12.2241 111 88 55
-2.4358 6.4239 -21.4925 106 93 42
-9.4762 7.1190 -21.4286 160 150 83
-4.1026 1.3728 -14.2012 104 74 54
0.7753 0.1233 -15.8590 116 104 84
4.4346 1.7916 -15.9645 169 191 207
0.8447 8.9689 -22.3602 111 152 67
-3.4545 -2.5325 -11.6883 123 124 70
-6.1246 3.1098 -21.3650 134 112 76
-9.9162 7.2096 -21.5569 92 147 57
-3.4301 -2.3121 -9.7693 141 146 99
-1.9429 -0.9000 -12.8571 130 105 70
-2.5278 -0.9306 -12.5000 129 115 120
-0.3980 4.9154 -17.9104 189 182 160
-4.2030 8.4776 -21.4925 138 144 109
-2.1192 -2.0265 -11.9205 136 107 53
-2.2000 -3.2875 -11.2500 55 38 17
-0.5229 0.3660 -15.6863 137 133 51
4.2575 -0.5665 -15.4506 154 158 161
-4.2420 -0.9537 -12.8114 126 100 68
-2.0000 -3.5125 -11.2500 164 169 154
-3.0099 -2.9760 -10.1839 53 46 17
-3.6760 -2.1025 -11.9008 130 109 76
-2.9930 -2.6442 -10.1266 109 104 48
-6.3797 -0.1857 -15.1899 58 58 39
1.3219 3.4872 -20.5128 95 142 59
0.7030 -0.4000 -10.9091 134 46 55
-2.6301 1.3307 -14.0900 62 52 47
4.7914 3.7433 -19.2513 80 139 71
1.2108 -3.0378 -9.7297 154 148 102
-7.5490 3.9644 -21.3650 179 163 124
2.3529 0.5441 -13.2353 194 37 40
-2.1661 -0.5343 -12.9964 130 108 64
-2.7802 -1.4037 -12.2658 128 111 68
-2.3849 0.2566 -13.5849 100 76 53
1.2929 1.6000 -14.5455 162 96 151
-7.9288 1.7804 -21.3650 220 60 103
-7.3810 5.6429 -21.4286 154 130 117
3.1169 -0.5195 -13.3581 249 47 57
-0.4764 4.7841 -17.8660 189 178 170
-4.2934 -0.7585 -12.8801 172 135 84
-7.1905 5.6429 -21.4286 181 162 125
1.1331 3.5581 -20.3966 161 197 93
1.6190 7.6429 -21.4286 67 103 70
3.1471 -0.9265 -13.2353 244 38 64
0.8741 -0.3278 -10.9256 62 57 48
-3.0286 -0.6143 -12.8571 123 107 73
3.9273 7.0061 -21.8182 100 153 106
-0.1713 -0.6338 -15.4176 206 209 96
4.3478 4.7609 -19.5652 75 135 62
-3.7724 -3.8266 -9.7561 53 18 24
0.9624 2.7068 -18.0451 99 126 184
-9.4762 4.6429 -21.4286 146 173 87
-4.1514 -0.5910 -12.9730 126 93 65
-0.2249 -1.4940 -14.4578 141 59 73
0.5630 4.9501 -21.1144 121 176 68
-4.3266 -1.5529 -9.6386 137 97 116
-4.1617 -1.4340 -9.7035 110 74 101
-10.4142 2.2959 -21.3018 139 100 39
-6.4268 -1.0209 -15.0628 94 98 57
-4.3904 -0.1915 -13.2597 107 84 65
-9.7515 4.9941 -21.3018 155 138 92
-5.3537 -0.5966 -13.7667 103 84 34
-6.2567 7.5224 -21.4925 179 165 121
0.3988 9.1464 -22.4299 103 162 56
0.6871 7.6810 -22.0859 141 177 64
0.3902 6.9512 -21.9512 117 163 106
1.2308 3.7151 -20.5128 117 171 72
-3.4699 7.7831 -21.6867 156 138 107
0.8691 2.2321 -17.7778 205 194 190
-7.4839 0.9401 -16.5899 156 86 69
1.0385 1.2170 -14.6045 153 95 53
-9.7143 6.4048 -21.4286 162 152 96
-4.3617 -2.1596 -9.5745 205 208 196
-1.0626 -0.6224 -13.6622 130 103 60
0.3793 -0.3276 -15.5172 175 164 48
-4.1336 -1.1670 -12.6538 103 81 57
-8.8095 3.1190 -21.4286 95 136 50
-2.8012 3.3472 -21.3650 164 145 102
-2.6620 -1.2062 -12.4783 101 80 69
3.2189 5.4201 -21.3018 141 153 210
-1.5114 8.8339 -23.4528 58 85 48
-4.0479 -2.0346 -9.5872 189 194 154
-8.1905 5.5000 -21.4286 184 165 126
-4.4767 -1.9206 -12.4352 113 83 46
6.4299 5.4579 -22.4299 99 152 115
0.2000 9.1750 -22.5000 104 159 52
-8.4311 7.5928 -21.5569 158 149 93
0.9272 -0.5930 -9.7035 62 67 38
2.1143 -0.9286 -12.8571 188 31 41
-7.2119 7.7612 -21.4925 173 156 123
-2.1956 -2.8896 -11.3565 93 77 53
-10.0000 5.6905 -21.4286 151 135 88
-5.0000 -0.1667 -13.6364 133 99 63
-7.4248 -0.1569 -15.6863 152 136 75
3.3272 7.9021 -22.0183 84 138 62
3.7982 5.2463 -21.3650 146 148 164
5.5584 9.5844 -23.3766 222 93 42
2.5521 9.0061 -22.0859 152 86 152
-5.0526 -1.1470 -13.0672 93 73 35
-3.6667 5.7381 -21.4286 168 152 108
-7.1166 8.4663 -22.0859 175 158 113
-10.4198 9.2593 -22.2222 175 165 123
-2.1290 1.5645 -14.5161 72 61 57
0.4483 -0.7759 -15.5172 186 179 96
3.6261 3.1501 -20.3966 96 145 58
-2.6250 1.2656 -14.0625 81 70 46
-3.0101 -2.9059 -10.4197 96 80 25
-3.4194 1.9839 -14.5161 123 96 68
-9.4762 6.4524 -21.4286 151 140 70
3.5000 3.4773 -20.4545 162 204 96
3.5280 8.6708 -22.3602 136 189 86
-2.3191 -3.6489 -9.5745 178 182 161
3.1138 7.0180 -21.5569 105 166 66
-4.4075 0.1358 -13.5849 103 74 46
-10.3195 1.6331 -21.3018 149 112 52
4.0714 1.6250 -16.0714 77 113 70
-1.2893 1.2397 -14.8760 112 89 64
3.2381 6.1190 -21.4286 152 191 80
-0.0498 7.9003 -22.4299 158 183 72
-2.5868 6.1557 -21.5569 113 113 54
-3.8095 5.3095 -21.4286 160 143 103
6.0377 -2.1887 -22.6415 165 131 99
-5.8872 6.1009 -21.3650 187 168 136
-2.6667 6.3095 -21.4286 157 142 92
-3.2871 -2.7973 -9.7959 119 112 52
1.8042 6.4332 -21.3650 115 156 103
-3.3913 -2.5978 -9.7826 138 146 97
0.1407 0.1582 -15.8242 153 150 50
-2.9189 -1.5541 -12.1622 137 116 83
-3.5892 -2.5189 -9.7297 121 118 88
0.8331 -0.6088 -9.6128 64 62 45
-7.0000 4.9286 -21.4286 95 132 50
-7.5714 5.7381 -21.4286 173 140 110
-3.5833 -1.2361 -12.5000 114 94 60
-3.2306 -2.4993 -9.8226 139 150 88
-3.4348 -3.8804 -9.7826 34 22 9
4.1000 9.3750 -22.5000 138 183 84
3.2285 5.7211 -21.3650 90 131 83
-2.6000 5.4750 -22.5000 79 129 36
-8.4592 8.6767 -21.7523 162 147 103
-6.6985 -1.4056 -15.6182 140 126 72
-3.9414 -3.1638 -9.5872 76 33 17
2.5163 6.1484 -21.3650 97 145 88
-3.2568 -2.4590 -9.8361 137 140 94
-9.3333 3.6905 -21.4286 171 149 89
1.5372 -2.1976 -9.7429 82 142 128
0.9539 -1.5718 -9.7561 50 110 33
-4.4734 -2.1269 -12.3499 94 67 53
-3.5866 -3.5544 -9.6644 95 57 23
-7.7143 5.6429 -21.4286 182 160 120
1.0374 2.2943 -17.9551 205 197 195
3.1818 3.1136 -20.4545 71 116 59
-2.1250 -3.3875 -11.2500 45 32 11
2.0475 0.5119 -13.1627 204 33 45
-8.5749 7.8323 -21.5569 156 142 93
-3.0891 -1.9406 -11.8812 121 91 53
3.0545 7.7333 -21.8182 119 169 123
-3.0968 3.3079 -21.1144 170 151 100
-6.6183 -1.1429 -15.3518 138 120 75
0.7401 -1.4259 -9.7959 51 115 53
-2.0129 8.1806 -23.2258 107 138 49
-3.6578 -2.7273 -9.6257 125 126 84
3.2795 8.5217 -22.3602 140 192 114
-7.0476 3.6429 -21.4286 191 169 131
-3.1288 -2.6836 -11.4467 128 107 53
-9.5714 3.5952 -21.4286 183 170 120
-10.6190 5.8810 -21.4286 168 154 101
4.2049 2.4766 -16.0356 107 165 190
-6.9849 0.0860 -15.4839 108 118 72
-1.3542 6.6959 -22.5705 84 132 78
-3.1016 -3.7968 -9.6257 96 83 91
-2.2857 4.4048 -21.4286 166 152 98
-1.8286 -0.9857 -12.8571 131 104 73
-5.9524 4.5476 -21.4286 164 135 106
-3.6875 1.2031 -14.0625 101 80 44
-3.3333 4.7381 -21.4286 159 134 99
-0.7748 2.6538 -17.4334 133 133 163
-3.1549 -0.9155 -12.6761 98 84 56
-4.6612 -1.9187 -9.7561 158 151 99
0.3563 0.8731 -16.0356 208 214 102
-0.6115 0.2208 -15.2866 128 123 33
-10.6667 3.4048 -21.4286 148 129 81
-1.4072 9.4593 -23.4528 107 155 54
-3.9683 -2.1847 -9.4987 162 159 113
-2.4288 -3.8455 -9.5872 168 165 164
-0.9042 2.6929 -17.6904 139 132 162
-4.1667 -1.3750 -12.5000 168 140 93
-3.3333 5.5952 -21.4286 169 151 106
-5.0952 3.7381 -21.4286 172 146 109
-8.6190 3.2619 -21.4286 135 155 68
-3.5714 5.6429 -21.4286 163 148 111
0.9979 0.5821 -14.9688 84 75 77
-3.0541 -1.5811 -12.1622 163 138 89
-9.9048 2.8810 -21.4286 135 99 57
3.4901 3.2861 -20.3966 62 99 59
2.3121 5.2948 -20.8092 79 107 70
-4.6617 -0.1353 -13.5338 136 108 59
-3.9585 -1.3979 -12.4567 165 137 76
-6.8720 -1.6139 -15.6182 36 30 48
-2.5957 -3.2234 -9.5745 190 192 159
5.9152 4.8727 -21.8182 105 181 63
-5.2381 4.7857 -21.4286 144 156 90
-0.6154 1.8269 -17.3077 164 133 143
-1.8135 -0.7166 -13.1627 117 94 52
5.7737 5.6514 -22.0183 130 184 81
-4.8571 7.7857 -21.4286 94 77 118
-2.0426 -3.3298 -9.5745 88 102 147
-4.1429 5.3571 -21.4286 159 145 98
5.5048 8.8746 -23.1511 223 115 50
-0.0000 4.2365 -17.7340 225 127 148
-0.3868 0.1934 -15.8242 136 133 32
-1.5793 -2.5243 -11.6505 138 109 78
-4.3127 -1.3693 -9.7035 134 90 104
-1.3308 -0.4688 -13.6106 107 83 53
-5.9524 4.6429 -21.4286 151 107 92
-1.6065 -3.3541 -9.7693 52 35 17
-3.3514 -3.0811 -9.7297 80 37 21
-4.0476 4.5000 -21.4286 162 146 98
4.4868 3.3651 -19.0476 80 139 66
-1.4367 -3.3197 -9.7959 142 137 100
0.5983 -2.3601 -9.9723 174 203 153
-2.5238 3.3095 -21.4286 71 105 19
-4.4268 -0.6510 -13.0199 136 106 73
-1.7221 0.7358 -14.0900 97 66 49
-6.7732 -1.3305 -15.5508 127 120 79
1.3294 5.4837 -21.3650 117 175 71
3.6253 0.6449 -15.6863 82 127 70
-4.0832 0.4991 -13.6106 77 61 35
-9.8866 3.8925 -21.4925 183 166 128
5.9054 7.5457 -22.7129 132 172 83
-3.3946 -3.1027 -9.7297 78 30 22
-2.2667 2.0833 -15.0000 104 87 54
2.2315 7.0504 -21.3650 110 155 79
-0.4674 1.0607 -16.1798 172 159 161
-10.2716 9.1111 -22.2222 180 172 131
-10.2651 8.2651 -21.6867 180 170 135
0.3785 -0.9118 -15.4839 156 151 50
-3.9459 -1.7432 -12.1622 142 119 98
-4.3460 -1.7578 -12.4567 127 99 69
3.2481 -0.4962 -13.5338 248 47 61
-8.9791 5.8985 -21.4925 151 177 106
-3.5651 -2.8886 -9.6644 95 86 31
-3.5821 6.7582 -21.4925 82 121 59
-10.0476 2.6429 -21.4286 173 144 93
-6.0885 6.2537 -21.2389 98 140 56
-10.7645 6.7768 -22.0183 137 158 53
-9.6190 4.7381 -21.4286 99 125 64
-1.8988 -1.3264 -12.5654 129 103 62
-3.3208 -1.4408 -12.3499 161 136 95
-1.6853 -3.1253 -9.6000 184 186 162
-6.5994 4.1543 -21.3650 189 166 142
-0.6344 0.5815 -15.8590 171 177 64
-3.2908 -0.8369 -12.7660 108 90 55
2.0890 6.7181 -21.3650 148 186 88
0.9335 -1.7693 -9.7693 52 104 34
-4.7222 -2.0694 -12.5000 105 75 42
-1.7812 0.7031 -14.0625 25 20 8
-9.8385 9.0683 -22.3602 149 185 83
0.5345 0.8731 -16.0356 183 183 70
2.6471 0.2206 -13.2353 248 40 60
4.4629 6.1009 -21.3650 99 149 58
-4.2941 -0.2500 -13.2353 111 88 56
-9.7619 2.6429 -21.4286 118 130 61
-2.1750 -3.0125 -11.2500 105 83 60
4.1869 8.1994 -22.4299 125 185 94
-2.9890 -0.2784 -13.1868 111 99 61
-8.2857 6.4048 -21.4286 190 176 135
-1.8328 4.9288 -22.2910 113 129 48
-9.4762 5.0238 -21.4286 156 144 84
1.6239 7.7612 -21.4925 75 112 66
-4.1379 0.7816 -13.7931 37 29 26
4.0494 7.4321 -22.2222 122 185 77
6.5789 9.5000 -23.6842 212 184 52
-1.9531 -3.0673 -11.2676 101 83 47
-0.7097 -0.0161 -14.5161 141 111 56
1.2231 0.4132 -14.8760 229 47 57
-0.4335 5.6552 -17.7340 198 184 176
-2.4500 -3.0375 -11.2500 106 84 36
-0.4660 2.8544 -17.4757 116 122 147
-4.5373 -1.0963 -9.7693 163 141 90
0.8672 -1.3767 -9.7561 53 109 46
1.3478 -1.8587 -9.7826 45 123 28
-4.7552 -1.7762 -12.5874 100 72 46
-2.7879 0.5000 -13.6364 165 134 81
-1.6405 -3.5473 -9.5872 169 156 117
-2.2300 -0.9338 -12.5436 148 114 83
-6.4802 -0.9854 -15.0313 139 120 68
4.2601 7.3065 -22.2910 123 184 89
-2.2979 -3.2660 -9.5745 170 175 170
-9.3810 3.9286 -21.4286 175 160 108
0.9846 8.5415 -22.1538 111 161 66
0.3489 9.2461 -22.4299 110 165 70
-4.5238 7.4524 -21.4286 189 166 131
3.7826 2.8478 -19.5652 116 170 192
-6.2381 6.8810 -21.4286 153 135 96
0.5862 -0.3276 -15.5172 187 174 169
-9.7143 3.5476 -21.4286 180 158 109
1.8571 8.2619 -21.4286 75 113 65
1.1905 5.9762 -21.4286 96 161 58
-1.4229 0.5534 -14.2292 81 63 38
0.7882 2.1872 -17.7340 207 191 195
-7.2857 7.3571 -21.4286 148 171 123
2.1059 -1.5538 -11.5570 188 149 112
